# .PCD v0.7 - Point Cloud Data file format
VERSION 0.7
FIELDS x y z
SIZE 4 4 4
TYPE F F F
COUNT 1 1 1
WIDTH 1810
HEIGHT 1
VIEWPOINT 0 0 0 1 0 0 0
POINTS 1810
DATA ascii
-0.26385096 -1 1.0009687
-0.26811147 -1 1.0042287
-0.26612845 -1 0.9878509
-0.28084311 -1 0.99643815
-0.27054945 -1 0.96297085
-0.27222788 -1 1.1016262
-0.2602841 -1 1.0803239
-0.26301247 -1 1.0814859
-0.27140084 -1 1.057009
-0.27304056 -1 1.0510937
-0.26086575 -1 1.1488763
-0.25820929 -1 1.1931748
-0.27112493 -1 1.1593698
-0.27627411 -1 1.1430025
-0.25529042 -1 1.2271761
-0.2730149 -1 1.2291535
-0.27278319 -1 1.2333684
-0.25400364 -1 1.298854
-0.27875155 -0.99999994 1.2915126
-0.25546092 -1 1.4257281
-0.27321309 -1 1.372787
-0.26292992 -1 1.4975684
-0.26426214 -1 1.4433796
-0.30561924 -1 -0.84602547
-0.30095443 -1 -0.88953531
-0.28929734 -1 -0.79968804
-0.30158132 -1 -0.8354134
-0.28254044 -1 -0.74372292
-0.2965914 -1 -0.6854319
-0.31097859 -1 -0.74007988
-0.30890417 -1 -0.74719083
-0.30411488 -1 -0.61775297
-0.30336535 -1 -0.60396236
-0.29322401 -1 -0.66816187
-0.30669585 -1 -0.63850582
-0.28225407 -1 -0.54051328
-0.28167519 -1 -0.59167182
-0.29122996 -1 -0.59122282
-0.29482663 -1 -0.58053887
-0.30997074 -1 -0.53758073
-0.2823486 -1 -0.48544765
-0.28305721 -1 -0.46514738
-0.28686047 -1 -0.45653468
-0.30659086 -1 -0.48013085
-0.29808831 -1 -0.48037246
-0.28793052 -1 -0.50190991
-0.30070823 -1 -0.37275398
-0.29569754 -1 -0.38227993
-0.28422543 -1 -0.42597058
-0.30769414 -1 -0.39238045
-0.30639637 -1 -0.39433038
-0.30241242 -1 -0.42186549
-0.28395909 -1 -0.31876293
-0.30693194 -1 -0.29009721
-0.28548583 -1 -0.31042778
-0.30897051 -1 -0.29178715
-0.30807891 -1 -0.33725196
-0.29092368 -1 -0.34256244
-0.2934587 -1 -0.23804736
-0.30674788 -1 -0.20270672
-0.28282747 -1 -0.23102432
-0.31228977 -1 -0.23939759
-0.30807292 -1 -0.26542771
-0.28184563 -1 -0.143739
-0.2934486 -1 -0.16109562
-0.28191587 -1 -0.12809455
-0.30510384 -1 -0.17837
-0.30025274 -1 -0.16319266
-0.29604504 -1 -0.049043909
-0.28125 -1 -0.11033233
-0.29475698 -1 -0.076492384
-0.31248224 -1 -0.098387554
-0.30538422 -1 -0.093515031
-0.30662221 -1 -0.057919584
-0.29517144 -1 0.0080597643
-0.29991168 -1 0.031546857
-0.29104361 -1 0.00018753018
-0.29123443 -1 -0.0082985731
-0.31149396 -1 0.031289529
-0.30644333 -1 0.0039339196
-0.3098779 -1 0.11657341
-0.29183361 -0.99999994 0.10639551
-0.28178769 -1 0.082853451
-0.29982489 -1 0.064088538
-0.30724087 -1 0.056323946
-0.30590558 -1 0.10094504
-0.28463212 -1 0.17137808
-0.28683847 -1 0.18916082
-0.28504708 -1 0.19621621
-0.30885038 -1 0.1767519
-0.30772042 -1 0.14803684
-0.28514156 -1 0.13747624
-0.29949793 -1 0.25358218
-0.2864725 -1 0.22636005
-0.28837317 -1 0.2279664
-0.3061519 -1 0.21197541
-0.30197358 -1 0.22266518
-0.30980963 -1 0.22082169
-0.30570608 -1 0.34714043
-0.29847121 -0.99999994 0.34672207
-0.28816363 -1 0.36895144
-0.30901712 -1 0.29493874
-0.30072546 -1 0.29005623
-0.29591259 -1 0.30184788
-0.30526483 -1 0.43916342
-0.30715483 -1 0.43542498
-0.29005685 -1 0.44145831
-0.28460348 -1 0.37705854
-0.30809838 -1 0.42696759
-0.30080235 -1 0.36596549
-0.30503336 -1 0.40893987
-0.29403251 -1 0.51061666
-0.28383353 -1 0.46099785
-0.2920472 -1 0.52121323
-0.30187845 -1 0.49526942
-0.2961936 -1 0.45309046
-0.31029716 -1 0.45320556
-0.29299384 -1 0.59989953
-0.28782931 -1 0.57087463
-0.28296027 -1 0.57615024
-0.29581696 -1 0.54931521
-0.30843201 -1 0.55483365
-0.29558975 -1 0.54031777
-0.28421354 -1 0.68816561
-0.29720151 -1 0.67212999
-0.28344861 -1 0.6276167
-0.30215368 -1 0.65866488
-0.29897469 -1 0.62301642
-0.30600783 -1 0.63454282
-0.29496655 -1 0.74996382
-0.30258906 -1 0.75070906
-0.29172015 -1 0.77141529
-0.29629919 -1 0.72231281
-0.30855724 -1 0.74020803
-0.30182755 -1 0.70609456
-0.29806679 -1 0.82000297
-0.28388759 -1 0.84447199
-0.28347147 -1 0.85159326
-0.30276206 -1 0.81812459
-0.30363357 -1 0.81722957
-0.30821735 -1 0.800668
-0.30553263 -1 0.90885836
-0.28800052 -1 0.9081682
-0.2917957 -1 0.89312279
-0.30550125 -1 0.85838467
-0.30787104 -1 0.87071776
-0.31044531 -1 0.88469309
-0.29888004 -1 1.0086403
-0.28435752 -1 1.0165316
-0.28222764 -1 0.94663084
-0.30083889 -1 0.95048136
-0.30141884 -1 0.97126484
-0.31159547 -1 0.97269696
-0.28131464 -1 1.0981181
-0.28226095 -1 1.0492864
-0.30062187 -1 1.0104373
-0.30146673 -1 1.0528421
-0.2973842 -1 1.0353845
-0.28979346 -1 1.1199386
-0.30100894 -1 1.0994768
-0.29975051 -1 1.2301482
-0.31125364 -1 1.2265286
-0.2905125 -1 1.2812594
-0.29272693 -1 1.2774239
-0.30580935 -1 1.4047468
-0.28333667 -1 1.3466272
-0.30919394 -1 1.4826064
-0.30752891 -1 1.4436085
-0.31480789 -1 -0.89941788
-0.32734621 -1 -0.91167319
-0.33850613 -1 -0.77400267
-0.34128806 -1 -0.76817846
-0.33124018 -1 -0.81199259
-0.32587621 -1 -0.70765358
-0.31723362 -0.99999994 -0.69588643
-0.33984667 -1 -0.73398292
-0.33746338 -1 -0.76116329
-0.32370371 -1 -0.60247618
-0.31351927 -1 -0.65496773
-0.32533306 -1 -0.61350954
-0.34092277 -1 -0.67909241
-0.33914405 -1 -0.62477005
-0.34036961 -1 -0.67769378
-0.31871575 -1 -0.55396414
-0.33389485 -0.99999994 -0.54541838
-0.32846338 -1 -0.54851878
-0.33712366 -1 -0.59162283
-0.327631 -1 -0.56524485
-0.33690971 -1 -0.57758307
-0.31819534 -1 -0.44522539
-0.3181664 -1 -0.46749535
-0.32890594 -1 -0.47838074
-0.32790855 -1 -0.50255519
-0.33084956 -1 -0.50339353
-0.31369752 -1 -0.40458113
-0.31787255 -1 -0.3893927
-0.3190116 -1 -0.42628166
-0.34172109 -1 -0.37789911
-0.32354331 -1 -0.2943567
-0.33773527 -1 -0.29453665
-0.34332329 -1 -0.35465506
-0.3197118 -1 -0.35114962
-0.34186953 -1 -0.34796411
-0.31632155 -1 -0.21131752
-0.31489527 -1 -0.22528873
-0.31697643 -1 -0.2156589
-0.32349953 -1 -0.25748017
-0.33617431 -1 -0.23434092
-0.33048153 -1 -0.14146537
-0.31465369 -1 -0.17674911
-0.32183176 -1 -0.19373848
-0.3205952 -1 -0.18634292
-0.32305768 -1 -0.17853221
-0.33440918 -1 -0.061271258
-0.31277269 -1 -0.11197182
-0.3418951 -1 -0.053657584
-0.34096831 -1 -0.09437032
-0.34184048 -1 -0.12710479
-0.31894097 -1 0.0055941255
-0.33158273 -1 0.013160893
-0.32310969 -1 -0.0051148515
-0.33664176 -1 -0.0023602732
-0.33907318 -1 0.013100008
-0.31957743 -1 -0.040129978
-0.33873987 -1 0.10641633
-0.31495926 -1 0.062510364
-0.32119226 -1 0.08464025
-0.34156016 -1 0.037778985
-0.339499 -1 0.052490093
-0.32120484 -1 0.05033946
-0.33291239 -1 0.17958671
-0.33734459 -1 0.1794403
-0.31320307 -1 0.14755583
-0.34231561 -1 0.17104505
-0.33254713 -1 0.14653522
-0.33675611 -1 0.15660352
-0.32259852 -1 0.23546219
-0.33354181 -1 0.26145869
-0.32247823 -1 0.26676112
-0.34263417 -1 0.25914013
-0.32430074 -1 0.20623651
-0.3416667 -1 0.24429372
-0.3172662 -1 0.34692922
-0.31608474 -1 0.32020894
-0.3200298 -1 0.30148977
-0.3403621 -1 0.32599482
-0.33151969 -1 0.29559481
-0.34309578 -1 0.33099452
-0.31948403 -1 0.38988325
-0.326998 -1 0.39504433
-0.31504321 -1 0.40111193
-0.31790054 -1 0.40909469
-0.33348325 -1 0.37563258
-0.34121072 -1 0.41987613
-0.33620811 -1 0.3908636
-0.31400424 -1 0.46538049
-0.31596407 -1 0.49820563
-0.32111073 -1 0.48341596
-0.33156115 -1 0.44100332
-0.3236236 -1 0.45825958
-0.33023435 -1 0.46495992
-0.32615083 -1 0.57479173
-0.32089475 -1 0.58680415
-0.33710796 -1 0.58650219
-0.33300805 -1 0.54848111
-0.31926996 -1 0.51811308
-0.34017375 -1 0.55101794
-0.33042088 -1 0.65617228
-0.32854265 -1 0.63312495
-0.32670981 -1 0.62932062
-0.33873332 -1 0.63094711
-0.33071941 -0.99999994 0.60615671
-0.32168475 -1 0.60943842
-0.32059053 -1 0.69711626
-0.33800104 -1 0.73162854
-0.33167127 -1 0.71940696
-0.33667573 -1 0.67666942
-0.33116278 -1 0.68759477
-0.33206192 -1 0.69833428
-0.3234013 -1 0.80935216
-0.32875741 -1 0.80314767
-0.32334647 -1 0.82517987
-0.3231138 -1 0.76337385
-0.33376986 -1 0.79823178
-0.33485344 -1 0.78375459
-0.31921107 -1 0.90900719
-0.31636032 -1 0.91209471
-0.31256804 -1 0.910914
-0.33773085 -0.99999994 0.84931147
-0.33988899 -1 0.85749215
-0.32138684 -1 0.84381217
-0.32571983 -1 0.95500481
-0.32775104 -1 0.98826718
-0.32375956 -1 0.98777324
-0.32470202 -1 0.94069427
-0.34011316 -1 0.94942617
-0.32243419 -1 0.92750621
-0.32965255 -1 1.045572
-0.32717404 -1 1.0547856
-0.33427763 -1 1.0265137
-0.3227897 -1 1.0172542
-0.32897148 -1 1.0058931
-0.3214671 -1 1.1080593
-0.31617644 -1 1.115448
-0.32461759 -1 1.0729078
-0.32781178 -1 1.1046715
-0.32372347 -1 1.1844335
-0.3305819 -1 1.1920457
-0.3138909 -1 1.2817142
-0.32245922 -1 1.2333875
-0.32991475 -1 1.3837841
-0.34259379 -0.99999994 1.3632082
-0.34018251 -1 1.385868
-0.35730425 -1 -0.86121523
-0.3657285 -1 -0.91934168
-0.34752285 -1 -0.81480008
-0.36912227 -1 -0.8330009
-0.3676737 -1 -0.69250882
-0.34695807 -1 -0.75038946
-0.36197245 -1 -0.72077078
-0.37040848 -1 -0.70098811
-0.34997305 -1 -0.62844235
-0.34427994 -1 -0.64000803
-0.34470636 -1 -0.66170424
-0.3725917 -1 -0.67980629
-0.35320437 -1 -0.68264306
-0.36963084 -1 -0.53349853
-0.36522105 -1 -0.54801005
-0.35760754 -1 -0.59500855
-0.35888994 -1 -0.57869548
-0.35638252 -1 -0.47095329
-0.35203859 -1 -0.4973723
-0.37383434 -1 -0.46426657
-0.37423685 -1 -0.49451053
-0.3489621 -1 -0.38492921
-0.36022383 -1 -0.37640685
-0.37379795 -1 -0.43139333
-0.36662284 -1 -0.39779881
-0.35114419 -1 -0.44400442
-0.3514263 -1 -0.3266592
-0.34674162 -1 -0.29469433
-0.35414186 -1 -0.31499612
-0.36466068 -1 -0.31866279
-0.35442066 -1 -0.35513848
-0.37324435 -1 -0.31059149
-0.34498137 -1 -0.24645029
-0.34877527 -1 -0.23585643
-0.35343757 -1 -0.23223105
-0.35171062 -1 -0.28211623
-0.36544806 -1 -0.24308817
-0.35710296 -1 -0.26007581
-0.35698688 -1 -0.1568296
-0.3551259 -1 -0.15279528
-0.37317729 -1 -0.14789847
-0.37279195 -1 -0.15782914
-0.36424273 -1 -0.19614667
-0.35119098 -1 -0.10762677
-0.36693668 -1 -0.073331237
-0.36552492 -0.99999994 -0.10457982
-0.36760941 -1 -0.092447668
-0.35299808 -1 -0.0042700274
-0.34559184 -1 -0.019384446
-0.34894192 -1 0.0070366468
-0.3469229 -1 -0.04244262
-0.3511824 -1 -0.049479835
-0.35696855 -1 -0.047918256
-0.3468557 -1 0.067407034
-0.36669448 -1 0.082190052
-0.3698175 -1 0.09509144
-0.36832845 -1 0.082916386
-0.35626566 -1 0.049410108
-0.37189668 -1 0.042281426
-0.3539573 -1 0.14667709
-0.35752723 -1 0.16894586
-0.34536502 -1 0.16077238
-0.36772022 -1 0.11061318
-0.36970389 -1 0.12321869
-0.3548944 -1 0.11509608
-0.36145407 -1 0.23708627
-0.34454224 -1 0.20301658
-0.35321173 -1 0.22386228
-0.36006358 -1 0.21224584
-0.36686921 -1 0.21371561
-0.3718254 -1 0.1847928
-0.34731945 -1 0.3283796
-0.34483486 -1 0.27263296
-0.34645519 -1 0.28881493
-0.37404221 -1 0.25646746
-0.36535874 -1 0.27291858
-0.36167923 -1 0.29936963
-0.35569897 -1 0.40653792
-0.37170249 -1 0.41308618
-0.36038646 -1 0.38886201
-0.36350596 -1 0.35882258
-0.37028152 -1 0.37823954
-0.37073332 -1 0.36673853
-0.36225164 -0.99999994 0.4908374
-0.34543824 -1 0.43160871
-0.34727922 -1 0.49935979
-0.36659756 -1 0.43663082
-0.36582586 -1 0.4568589
-0.34721863 -1 0.43023703
-0.34842983 -1 0.5443058
-0.37255475 -1 0.5677768
-0.34826535 -1 0.58199829
-0.35693085 -1 0.50445688
-0.36885998 -1 0.53993505
-0.35657674 -1 0.52806258
-0.34674367 -1 0.60056651
-0.35003278 -1 0.61788321
-0.36552233 -1 0.63354445
-0.36381865 -1 0.58064252
-0.35570329 -1 0.60235339
-0.37317926 -1 0.57720828
-0.36685756 -1 0.71501195
-0.34450275 -1 0.70907313
-0.35077745 -1 0.70007139
-0.37067288 -1 0.67033935
-0.35954803 -1 0.65547341
-0.35995859 -1 0.68874466
-0.36202407 -1 0.80346358
-0.36130151 -1 0.80240691
-0.34732452 -1 0.75131655
-0.36932486 -1 0.74802673
-0.36272272 -1 0.76701242
-0.37075403 -1 0.77865821
-0.34788197 -1 0.88095325
-0.34952217 -1 0.89188248
-0.35976559 -1 0.88916093
-0.36104634 -1 0.845734
-0.36553913 -1 0.83988374
-0.34734371 -1 0.8263253
-0.37128937 -1 0.95576638
-0.35345405 -1 0.93140626
-0.34448662 -1 0.93455619
-0.3738291 -1 0.90140164
-0.37176687 -1 0.92222452
-0.37120184 -1 0.92134142
-0.36493486 -1 1.030359
-0.35417461 -1 1.0135159
-0.34510899 -1 1.0011647
-0.36796761 -1 0.96952581
-0.36095554 -1 0.97203058
-0.35644445 -1 0.9747647
-0.35231897 -1 1.0817991
-0.3687177 -1 1.0788666
-0.35887042 -1 1.1689218
-0.36191899 -1 1.1854696
-0.35338977 -1 1.1496255
-0.34634948 -1 1.2611583
-0.36276391 -0.99999994 1.2486964
-0.35436946 -1 1.3296793
-0.36982539 -1 1.3320502
-0.35839581 -1 1.3893704
-0.40380523 -1 -0.86413515
-0.39297342 -1 -0.77266753
-0.3933782 -1 -0.80551189
-0.4011806 -1 -0.81831551
-0.37947121 -1 -0.709463
-0.39406443 -1 -0.74728525
-0.39052701 -1 -0.75288868
-0.37977743 -1 -0.66796607
-0.38065702 -1 -0.61847055
-0.39908156 -1 -0.62963778
-0.39011946 -1 -0.65763646
-0.39482462 -1 -0.55063641
-0.37582636 -1 -0.60419858
-0.38654205 -1 -0.56524807
-0.39652961 -1 -0.60626173
-0.39555192 -1 -0.58521897
-0.38787866 -1 -0.46708494
-0.38672274 -1 -0.47248614
-0.40233505 -1 -0.49413028
-0.40056568 -1 -0.50543565
-0.39717993 -1 -0.52662873
-0.38455296 -1 -0.41941711
-0.39811876 -1 -0.37898141
-0.38207299 -1 -0.44948366
-0.39671779 -1 -0.4465639
-0.38576812 -1 -0.32960463
-0.37786096 -1 -0.30330142
-0.38710785 -1 -0.30888653
-0.4046998 -1 -0.32079333
-0.39476064 -1 -0.3737416
-0.37840021 -1 -0.26517799
-0.38348484 -1 -0.24790351
-0.39985222 -1 -0.23917915
-0.38284761 -1 -0.28570169
-0.39674357 -1 -0.16276026
-0.38047957 -1 -0.16575448
-0.3989976 -1 -0.19754826
-0.39013466 -1 -0.2016075
-0.3951667 -1 -0.078616962
-0.40264714 -1 -0.075117305
-0.37531832 -1 -0.12355885
-0.40426737 -1 -0.12985583
-0.4028002 -1 -0.077503696
-0.39613968 -1 -0.11368104
-0.40163082 -1 0.0074181119
-0.3764433 -1 -0.0024831952
-0.38600624 -1 -0.0084096156
-0.38941523 -1 -0.057748087
-0.40066576 -1 -0.037607543
-0.40154701 -1 -0.009641666
-0.40036017 -1 0.081388272
-0.39159545 -1 0.066917874
-0.37935209 -1 0.094406836
-0.40488082 -1 0.011434969
-0.39840078 -1 0.029139277
-0.40578562 -1 0.084191911
-0.38973457 -1 0.16034713
-0.37727296 -1 0.15060371
-0.39367586 -1 0.12954649
-0.3984707 -1 0.0989305
-0.37943622 -1 0.19252944
-0.37914339 -1 0.2037732
-0.38665289 -1 0.21395154
-0.39853379 -1 0.1695475
-0.40454695 -1 0.21574543
-0.39314932 -1 0.17163946
-0.39072484 -1 0.29960722
-0.37628099 -1 0.3149451
-0.38713732 -1 0.27598941
-0.40170544 -1 0.29247826
-0.40462691 -1 0.30859935
-0.38351023 -1 0.37237602
-0.39605972 -1 0.38510403
-0.38506603 -1 0.40150392
-0.39810997 -1 0.37633443
-0.3934356 -1 0.34784213
-0.39849758 -1 0.35692403
-0.40183294 -1 0.47671014
-0.39606461 -1 0.46158123
-0.37846997 -1 0.43971252
-0.38821292 -1 0.41752285
-0.39621341 -1 0.44228554
-0.39596698 -1 0.44301254
-0.37601608 -1 0.49697983
-0.38415134 -1 0.52122337
-0.38003096 -1 0.53097004
-0.39423856 -1 0.51779687
-0.39023888 -1 0.50666767
-0.40074196 -0.99999994 0.50034249
-0.39353311 -1 0.609837
-0.39477777 -1 0.61503702
-0.38282424 -1 0.60265297
-0.40014184 -1 0.57616574
-0.38803405 -1 0.5864858
-0.38492614 -1 0.70745808
-0.38047096 -1 0.68256962
-0.38372362 -1 0.7045356
-0.39381021 -1 0.6664995
-0.38949096 -1 0.64905137
-0.40488213 -0.99999994 0.65503585
-0.38146195 -1 0.78249943
-0.40142983 -0.99999994 0.78252047
-0.38437861 -1 0.77785718
-0.40339059 -1 0.76412082
-0.39590955 -1 0.74482608
-0.38621396 -1 0.83584094
-0.38638142 -1 0.87397552
-0.37988037 -1 0.84166396
-0.40598357 -1 0.80095899
-0.39230341 -1 0.80361235
-0.40311587 -1 0.84785903
-0.39472598 -1 0.94118756
-0.38111201 -1 0.93995339
-0.38171872 -1 0.90779322
-0.39725366 -1 0.87221372
-0.38883454 -1 0.89621127
-0.38189393 -1 0.87857091
-0.39003333 -1 0.9887569
-0.37953702 -1 1.0134428
-0.39223397 -1 1.0271208
-0.39539939 -1 0.95401639
-0.40510628 -1 1.0024656
-0.39329702 -0.99999994 1.0941699
-0.37585568 -1 1.1153491
-0.39798933 -1 1.0595402
-0.38204095 -1 1.0400885
-0.38659525 -1 1.1616132
-0.3955282 -1 1.1477803
-0.37791881 -1 1.2451392
-0.40138099 -1 1.2162905
-0.37599444 -1 1.2819197
-0.38333565 -1 1.2711421
-0.38609722 -1 1.3993801
-0.40516183 -1 1.3899282
-0.41593257 -1 -0.86111927
-0.41557875 -1 -0.90901965
-0.40631372 -1 -0.78486001
-0.41944587 -1 -0.82378399
-0.4096134 -1 -0.68990767
-0.42716667 -1 -0.73381209
-0.42085445 -1 -0.63782191
-0.41018936 -1 -0.65034038
-0.42444116 -1 -0.66051787
-0.42531127 -1 -0.67122936
-0.40914872 -1 -0.55922914
-0.42287511 -1 -0.57062495
-0.4340151 -1 -0.59639621
-0.43736532 -1 -0.59018886
-0.41178763 -1 -0.48412904
-0.41150579 -1 -0.47326478
-0.41719836 -1 -0.48264825
-0.43438238 -1 -0.4798314
-0.42445683 -1 -0.51270801
-0.41298097 -1 -0.39924407
-0.41401887 -1 -0.39275926
-0.40720308 -1 -0.45090312
-0.42804939 -1 -0.43028849
-0.43512109 -1 -0.4086315
-0.41073793 -1 -0.3230896
-0.41850001 -1 -0.32791954
-0.4074744 -1 -0.31595919
-0.43083376 -1 -0.35779339
-0.40948632 -1 -0.37359858
-0.43318355 -1 -0.35414031
-0.40774575 -1 -0.26978934
-0.43251354 -1 -0.23656386
-0.43166089 -1 -0.30338028
-0.4256129 -1 -0.25842237
-0.41900468 -1 -0.29018742
-0.42827266 -1 -0.15882602
-0.4108648 -1 -0.19177429
-0.43061373 -1 -0.15946361
-0.42893445 -1 -0.19103201
-0.41911155 -1 -0.20228192
-0.42892084 -1 -0.19619161
-0.41334814 -1 -0.11607836
-0.42143404 -1 -0.07439632
-0.41062298 -1 -0.11279011
-0.42202371 -1 -0.11369377
-0.42685288 -1 -0.14145616
-0.43605083 -1 -0.13765538
-0.4263764 -1 -0.021788752
-0.41509032 -1 -0.02080334
-0.41668814 -1 0.0025601743
-0.4360081 -1 -0.074180149
-0.42722255 -1 -0.055983581
-0.41430572 -1 0.056259252
-0.41088593 -1 0.050336465
-0.42531252 -1 0.034151834
-0.43680495 -1 0.030450728
-0.41686493 -1 0.12907825
-0.43495438 -1 0.14757241
-0.41373795 -1 0.12190275
-0.42028317 -1 0.10142027
-0.41428411 -1 0.084283888
-0.414758 -1 0.092608109
-0.42701948 -1 0.20989081
-0.4080362 -1 0.17296022
-0.42662555 -1 0.165214
-0.41884929 -1 0.17894652
-0.42260936 -1 0.28527939
-0.40880859 -1 0.27435565
-0.41497886 -1 0.26479524
-0.42588922 -1 0.2750546
-0.42278323 -1 0.25463766
-0.43015805 -1 0.26087072
-0.43408144 -1 0.38348588
-0.41116789 -1 0.35551408
-0.41077876 -1 0.34140661
-0.43240899 -1 0.31770259
-0.4309538 -1 0.35447818
-0.4289141 -1 0.36510959
-0.42537519 -1 0.46509719
-0.42825529 -1 0.45015085
-0.42155036 -1 0.43668526
-0.4227069 -1 0.42072687
-0.4199321 -1 0.3938854
-0.43733251 -1 0.41416442
-0.41323233 -1 0.52620125
-0.41173163 -1 0.53325629
-0.41893542 -1 0.53883338
-0.42920679 -1 0.4980588
-0.43633407 -1 0.50259268
-0.42305377 -1 0.49948841
-0.41143513 -1 0.609285
-0.41106158 -1 0.56879365
-0.42741889 -1 0.55352569
-0.43278635 -1 0.57130128
-0.42630637 -1 0.56029302
-0.41084266 -1 0.68418884
-0.40774706 -1 0.63546067
-0.42613006 -1 0.67267686
-0.43364951 -1 0.63045549
-0.43412241 -1 0.6787495
-0.42396122 -1 0.62539011
-0.41397703 -1 0.77561212
-0.40919551 -1 0.74281865
-0.42414343 -1 0.76254845
-0.4313218 -1 0.71776593
-0.41697025 -1 0.70933843
-0.43629247 -1 0.74551708
-0.41984308 -1 0.8181172
-0.41705769 -1 0.83594871
-0.42108688 -1 0.78651547
-0.43320554 -1 0.78345847
-0.4363535 -1 0.83055979
-0.43056807 -1 0.91671669
-0.43618262 -1 0.92028093
-0.41926697 -1 0.8987751
-0.42865148 -1 0.89421064
-0.43116713 -1 0.87191534
-0.4351328 -1 0.85874641
-0.42385691 -0.99999994 1.0010028
-0.40867695 -1 1.0157171
-0.41001275 -1 0.94359356
-0.41699779 -1 0.94525963
-0.41387767 -1 1.0700111
-0.41746449 -1 1.0286617
-0.43605262 -0.99999994 1.0606233
-0.42256203 -1 1.1373094
-0.43694994 -1 1.0858667
-0.43523055 -1 1.0876639
-0.41140184 -1 1.2199513
-0.40738231 -1 1.1741321
-0.42934966 -1 1.2930839
-0.43556923 -1 1.2744542
-0.41357237 -1 1.3541183
-0.4117662 -1 1.3290701
-0.45612812 -1 -0.85074794
-0.46652031 -1 -0.85931909
-0.46175611 -1 -0.77989668
-0.46563151 -1 -0.83724165
-0.44647405 -1 -0.74747193
-0.46447873 -1 -0.72717762
-0.45689899 -1 -0.72406894
-0.4557738 -1 -0.63938272
-0.44020554 -1 -0.62838513
-0.46282154 -1 -0.66070169
-0.45775831 -1 -0.66744727
-0.45386767 -1 -0.54186994
-0.46200979 -1 -0.55314517
-0.44881126 -1 -0.605681
-0.46760613 -1 -0.56592917
-0.44378334 -1 -0.50888705
-0.45575821 -1 -0.47552097
-0.44902617 -1 -0.47640216
-0.46644241 -1 -0.47788128
-0.46032453 -1 -0.53011668
-0.45530561 -1 -0.53022718
-0.43796733 -1 -0.42180407
-0.44039446 -1 -0.40414256
-0.45168579 -0.99999994 -0.42633232
-0.45907772 -1 -0.45503259
-0.45038474 -1 -0.45403907
-0.45410651 -1 -0.45614094
-0.46202922 -1 -0.31428558
-0.44436195 -1 -0.34142643
-0.44440442 -1 -0.34022936
-0.45003355 -1 -0.37727526
-0.45824182 -1 -0.34024104
-0.43975559 -1 -0.38423008
-0.45087385 -1 -0.23856106
-0.45852277 -1 -0.24832429
-0.45736575 -1 -0.2642478
-0.45843396 -1 -0.27691033
-0.459782 -1 -0.26433894
-0.44636899 -1 -0.19661042
-0.46060807 -1 -0.16602196
-0.45515972 -1 -0.16617039
-0.45766607 -1 -0.20314597
-0.45946985 -1 -0.20560518
-0.45097578 -1 -0.085096687
-0.44317296 -1 -0.10803317
-0.45826054 -1 -0.11005013
-0.463597 -1 -0.13827899
-0.45228139 -1 -0.14332725
-0.44128537 -1 -0.0040918179
-0.44888777 -1 -0.035388909
-0.45251656 -1 -0.068197682
-0.46682382 -1 -0.060394689
-0.44741091 -1 0.062933788
-0.44000962 -1 0.056375783
-0.4539625 -1 0.024610884
-0.4685173 -1 0.0082745338
-0.45838925 -1 -0.0029384173
-0.45059356 -1 0.14473389
-0.45397034 -1 0.12468369
-0.45067301 -1 0.085625939
-0.44377536 -1 0.081635743
-0.46853635 -1 0.13009319
-0.46087185 -1 0.20201597
-0.43754125 -1 0.17916805
-0.44865915 -1 0.21006721
-0.46511498 -1 0.15331799
-0.46312818 -1 0.2001982
-0.45962498 -1 0.28932768
-0.46119639 -1 0.28286588
-0.45372093 -1 0.29010981
-0.46871313 -1 0.22929628
-0.46857315 -1 0.23470344
-0.46753407 -1 0.27436838
-0.45575833 -1 0.36308673
-0.44367298 -1 0.34013778
-0.46019691 -1 0.36057633
-0.46806881 -1 0.33441496
-0.46322244 -0.99999994 0.34889767
-0.44030705 -1 0.3076221
-0.43906587 -1 0.41925192
-0.44378814 -1 0.41761622
-0.45813155 -1 0.44466549
-0.46295702 -1 0.37872595
-0.46706349 -1 0.40596974
-0.44582278 -1 0.3913565
-0.44710135 -1 0.48524785
-0.43906078 -1 0.48164514
-0.44271839 -1 0.51885688
-0.44540441 -1 0.46706629
-0.46791095 -1 0.46948805
-0.46280512 -1 0.47515035
-0.4448542 -1 0.58984721
-0.44165015 -1 0.54621202
-0.44166175 -1 0.54600525
-0.46755791 -1 0.5329653
-0.45150006 -1 0.56288892
-0.44638851 -1 0.54501188
-0.45244074 -1 0.65079248
-0.44580454 -1 0.64689726
-0.43863985 -1 0.64834589
-0.46532029 -1 0.65652102
-0.45500112 -1 0.62600589
-0.4630928 -1 0.63119465
-0.43863747 -1 0.76355129
-0.44287804 -1 0.74213827
-0.46323198 -1 0.69494814
-0.46443522 -1 0.71439314
-0.43932784 -1 0.77772826
-0.44115347 -1 0.79350245
-0.44837055 -1 0.81322813
-0.46402347 -1 0.77634311
-0.45693737 -1 0.80052805
-0.45408171 -1 0.78863096
-0.44668883 -1 0.87430561
-0.44624478 -1 0.894714
-0.46504158 -1 0.88150257
-0.46084765 -1 0.83835059
-0.46278208 -1 0.88408095
-0.45888999 -1 0.97953618
-0.46840739 -1 0.97678691
-0.46628428 -1 0.942469
-0.46493298 -1 0.94672835
-0.44969383 -1 0.94032037
-0.45247179 -1 1.027936
-0.44132653 -1 1.0061333
-0.45535028 -0.99999994 0.99928141
-0.43795973 -1 1.1046084
-0.44097415 -1 1.1091185
-0.46402282 -1 1.0693885
-0.4540596 -1 1.1899221
-0.44960091 -1 1.1689775
-0.46022627 -1 1.284224
-0.45972124 -1 1.2605482
-0.4485268 -1 1.3270056
-0.45471886 -1 1.3120906
-0.48128691 -0.99999994 -0.87736034
-0.48834687 -1 -0.92181438
-0.46891677 -1 -0.77971482
-0.49434569 -1 -0.82895148
-0.47919062 -1 -0.69808424
-0.49879926 -1 -0.75794184
-0.48104343 -1 -0.65941256
-0.4838421 -1 -0.62660754
-0.4906683 -1 -0.69318736
-0.49843135 -1 -0.64240015
-0.47426242 -1 -0.5862602
-0.47510168 -1 -0.55961603
-0.48431814 -1 -0.56705475
-0.4977966 -1 -0.55909079
-0.49349049 -1 -0.58111906
-0.47264913 -1 -0.47250703
-0.46910515 -1 -0.52457911
-0.46931511 -1 -0.52569193
-0.48715281 -1 -0.52937728
-0.4843581 -1 -0.5236879
-0.48687148 -1 -0.52136618
-0.47019944 -1 -0.39845228
-0.49445707 -1 -0.4093869
-0.4943952 -1 -0.3987444
-0.47595042 -1 -0.45650342
-0.49557549 -1 -0.42651552
-0.48847824 -1 -0.44944924
-0.4895196 -1 -0.34050784
-0.47232813 -1 -0.35475785
-0.46890002 -1 -0.33981922
-0.48546663 -1 -0.36493209
-0.49733809 -1 -0.3858031
-0.49307817 -1 -0.34816599
-0.47687936 -1 -0.26574489
-0.48388165 -1 -0.25443524
-0.47034344 -1 -0.25679418
-0.4976362 -1 -0.29945225
-0.49133164 -1 -0.27609536
-0.48705506 -1 -0.31722987
-0.47439289 -1 -0.21265814
-0.48804119 -1 -0.19799089
-0.48395684 -1 -0.21313149
-0.49834934 -1 -0.20920208
-0.48643047 -1 -0.09589082
-0.49769139 -1 -0.1003548
-0.48564693 -1 -0.10008459
-0.48621184 -1 -0.12959863
-0.49103594 -1 -0.13708499
-0.47778034 -1 -0.026787039
-0.47290564 -1 -0.013439557
-0.47813275 -1 -0.06593091
-0.48875484 -1 -0.080782026
-0.48059428 -1 -0.064400531
-0.49441892 -1 0.047439117
-0.47482327 -1 0.018264627
-0.49380234 -1 0.022353645
-0.49148789 -1 0.023211576
-0.47424299 -1 0.11047961
-0.47751471 -1 0.12911473
-0.48294353 -1 0.064643234
-0.47979635 -1 0.074865125
-0.48891199 -1 0.10044328
-0.47213194 -1 0.16136172
-0.46959797 -1 0.1886723
-0.48871401 -1 0.13529477
-0.48118505 -1 0.1463671
-0.48579323 -1 0.28407851
-0.47638044 -1 0.23591748
-0.48069832 -1 0.22132701
-0.49071926 -1 0.22677961
-0.47734666 -1 0.31028262
-0.47638023 -1 0.32676664
-0.46929207 -1 0.34361142
-0.49775434 -0.99999994 0.29367086
-0.49594501 -1 0.32981145
-0.4716512 -1 0.39089373
-0.48162624 -1 0.41163945
-0.48004937 -1 0.4002932
-0.48298356 -1 0.37095103
-0.48430541 -1 0.38705158
-0.49946645 -1 0.42385283
-0.47788674 -1 0.49302441
-0.48257688 -1 0.4818204
-0.47253063 -1 0.50343251
-0.48680291 -0.99999994 0.46278864
-0.47547227 -1 0.44750008
-0.49983928 -1 0.46550536
-0.4693068 -1 0.53637534
-0.47434968 -1 0.57243931
-0.48400941 -1 0.56304187
-0.49203378 -1 0.53811169
-0.48963517 -1 0.5499754
-0.49886099 -1 0.54226494
-0.49884322 -1 0.65563446
-0.476089 -1 0.65418547
-0.48915631 -1 0.58930242
-0.49855834 -1 0.62461269
-0.47467259 -1 0.59765995
-0.48900664 -1 0.72721481
-0.47125611 -1 0.68966824
-0.48913684 -1 0.71353382
-0.48721433 -1 0.66947782
-0.48762503 -1 0.67739725
-0.49436015 -1 0.71461564
-0.4736177 -1 0.78842354
-0.47679645 -1 0.81643736
-0.47442526 -1 0.78548139
-0.48152035 -1 0.76734287
-0.48457661 -1 0.74852347
-0.49856353 -1 0.76838881
-0.4728753 -1 0.8650142
-0.48863214 -1 0.88554776
-0.47670561 -1 0.87171745
-0.49997309 -1 0.85795432
-0.49944007 -0.99999994 0.82123131
-0.48644078 -1 0.84489125
-0.47548467 -1 0.9401195
-0.49291575 -1 0.94617933
-0.49884182 -1 0.9248817
-0.49909797 -1 0.9368099
-0.49356201 -1 0.94032145
-0.47496149 -1 0.98906732
-0.49043158 -1 1.0015742
-0.4917596 -1 1.0970113
-0.49343652 -1 1.0491357
-0.48138303 -1 1.168895
-0.47928447 -1 1.1225702
-0.48206374 -1 1.2010741
-0.47720352 -1 1.3195877
-0.48910642 -1 1.2938221
-0.50414103 -1 -0.89546525
-0.52755475 -1 -0.89492524
-0.51060402 -1 -0.78159797
-0.51585716 -1 -0.84881341
-0.51045096 -1 -0.74646878
-0.52600664 -1 -0.7609117
-0.50977737 -1 -0.66292834
-0.50099629 -1 -0.68237191
-0.51031649 -1 -0.67784882
-0.50568384 -1 -0.60888636
-0.52331996 -1 -0.56945074
-0.52998525 -1 -0.5865643
-0.51615524 -1 -0.61612213
-0.51530164 -1 -0.5900169
-0.51178396 -1 -0.48204097
-0.50631845 -1 -0.49142939
-0.52292174 -1 -0.54735756
-0.50868684 -1 -0.54959393
-0.52350986 -1 -0.41050828
-0.50870067 -1 -0.45235035
-0.50137091 -1 -0.42762882
-0.52188981 -1 -0.46241003
-0.53113163 -1 -0.42735368
-0.50396043 -1 -0.34276888
-0.51624954 -1 -0.32969153
-0.51835608 -1 -0.35069084
-0.52276409 -1 -0.35297003
-0.51406652 -1 -0.36934036
-0.52180254 -1 -0.40042162
-0.52055705 -1 -0.25989008
-0.51918393 -1 -0.26616082
-0.52010924 -1 -0.25356668
-0.51853865 -1 -0.29384437
-0.50263453 -1 -0.32137892
-0.50203139 -1 -0.18490194
-0.50114125 -1 -0.22143786
-0.51020604 -1 -0.18802528
-0.52989447 -1 -0.25235766
-0.50789958 -1 -0.24348746
-0.50623769 -1 -0.13751622
-0.51071012 -1 -0.13632126
-0.50485736 -1 -0.15578862
-0.52615219 -1 -0.16784045
-0.52921057 -1 -0.13896307
-0.52694225 -1 -0.16033579
-0.50439417 -1 -0.031931251
-0.52753544 -1 -0.036055919
-0.50494951 -1 -0.05490236
-0.52661574 -1 -0.061585292
-0.52454329 -1 -0.092172809
-0.50139183 -1 0.038433585
-0.52885056 -1 0.039619401
-0.52859533 -1 0.017688759
-0.51707006 -1 0.00051567424
-0.50968176 -1 0.088506266
-0.5106746 -1 0.093352541
-0.52546543 -1 0.093602948
-0.51170617 -1 0.066406742
-0.51660037 -1 0.1781583
-0.52106208 -1 0.17195523
-0.52933949 -1 0.12214898
-0.5140968 -1 0.12955704
-0.5034768 -1 0.22380716
-0.50212115 -1 0.26847571
-0.52453554 -1 0.24862759
-0.51649904 -1 0.21543959
-0.50415879 -1 0.2092987
-0.51318687 -1 0.31553447
-0.50248224 -1 0.35180095
-0.52466524 -1 0.26900011
-0.52935171 -1 0.27021194
-0.50155795 -1 0.36083251
-0.50767601 -1 0.37627271
-0.50115782 -1 0.38495111
-0.52149904 -1 0.35666245
-0.52335429 -1 0.34559682
-0.51105583 -1 0.3746151
-0.50189644 -1 0.43765855
-0.50252825 -1 0.44129044
-0.50475395 -1 0.45850164
-0.52654666 -1 0.46297011
-0.52249593 -1 0.44607314
-0.52152723 -1 0.46009016
-0.5241856 -1 0.55100852
-0.5296979 -1 0.56298125
-0.51646006 -1 0.54674554
-0.51669848 -1 0.5158298
-0.52860504 -1 0.5120151
-0.51556432 -1 0.53122872
-0.51505625 -1 0.64391607
-0.50067788 -1 0.61831307
-0.50918013 -1 0.61745632
-0.52732271 -1 0.62935334
-0.50949842 -1 0.5805673
-0.52218652 -1 0.59358001
-0.52082253 -1 0.71563363
-0.5144797 -1 0.71996248
-0.50724626 -1 0.66822898
-0.52161276 -1 0.67202151
-0.52701783 -1 0.64186585
-0.50488317 -1 0.74540985
-0.50755304 -1 0.76553071
-0.52651769 -1 0.77630287
-0.52687794 -1 0.75668967
-0.51234239 -1 0.74426651
-0.51628995 -1 0.84244078
-0.50523585 -1 0.84184718
-0.52739143 -1 0.83274341
-0.50998247 -1 0.81219107
-0.52768755 -1 0.84846598
-0.52478296 -1 0.92615068
-0.52549171 -1 0.93298894
-0.51290131 -1 0.89623415
-0.52986372 -1 0.91221476
-0.51992899 -1 0.90601194
-0.50263727 -1 0.99628717
-0.52102643 -1 1.0076019
-0.52046281 -1 0.94457364
-0.51149035 -1 1.0961679
-0.53002143 -1 1.0270704
-0.50467628 -0.99999994 1.1682663
-0.51635486 -1 1.1262406
-0.51525271 -1 1.2340306
-0.52289832 -1 1.1806669
-0.50252539 -1 1.2761093
-0.52439094 -1 1.2875946
-0.54434711 -1 -0.90512067
-0.53869295 -1 -0.80245739
-0.54562736 -1 -0.81933975
-0.55949485 -1 -0.70816433
-0.56098503 -0.99999994 -0.75762093
-0.5477252 -1 -0.63630521
-0.54327244 -1 -0.6660794
-0.56090665 -1 -0.63651091
-0.55104828 -1 -0.65851974
-0.54852247 -1 -0.56095946
-0.53501201 -1 -0.61488706
-0.55196977 -1 -0.62797391
-0.53806376 -1 -0.61538351
-0.54628408 -1 -0.48715764
-0.54615027 -1 -0.51356328
-0.55913895 -1 -0.51719666
-0.55765402 -1 -0.50675255
-0.53130674 -1 -0.44076702
-0.53226244 -1 -0.43364444
-0.54857242 -1 -0.41398776
-0.55421162 -1 -0.47942501
-0.54987741 -1 -0.46526921
-0.53479385 -1 -0.39187628
-0.53780723 -1 -0.36886504
-0.55263239 -1 -0.39277548
-0.5405587 -1 -0.38825619
-0.53970706 -1 -0.30878681
-0.53969675 -1 -0.2950865
-0.55221999 -1 -0.29824775
-0.54787433 -1 -0.31525522
-0.56060493 -1 -0.30855671
-0.53248048 -1 -0.22464794
-0.54177922 -1 -0.20231846
-0.55167842 -1 -0.18773285
-0.55335999 -1 -0.256479
-0.55264103 -1 -0.23662469
-0.54837614 -1 -0.11407645
-0.53655756 -1 -0.11891463
-0.54033238 -1 -0.17907244
-0.54035336 -1 -0.17934546
-0.55357277 -1 -0.14376283
-0.54172134 -1 -0.082772896
-0.53289378 -1 -0.076043352
-0.56150663 -1 -0.060146771
-0.55214238 -1 -0.078937121
-0.53800344 -1 -0.097759292
-0.53559309 -1 -0.0058362642
-0.541749 -1 0.033743992
-0.54309791 -1 -0.023402955
-0.53561372 -1 -0.030730259
-0.55482721 -1 0.091378659
-0.54166073 -1 0.099613771
-0.54737276 -1 0.053292695
-0.552495 -1 0.042947445
-0.53339559 -1 0.18472785
-0.53746843 -1 0.18246251
-0.55925 -1 0.12888002
-0.56181729 -1 0.11456592
-0.53270006 -1 0.20860283
-0.53206098 -1 0.23303874
-0.55806679 -1 0.19274545
-0.5617069 -1 0.24333459
-0.5450871 -1 0.33000672
-0.5413847 -1 0.31043255
-0.55421716 -1 0.30440661
-0.56233799 -1 0.28093392
-0.5324105 -1 0.34977421
-0.5401361 -1 0.37323287
-0.5583005 -1 0.37806326
-0.54083532 -1 0.35223979
-0.55702049 -1 0.36397412
-0.533454 -1 0.47569758
-0.54429698 -1 0.44021562
-0.56084836 -1 0.42582411
-0.55216634 -1 0.42516059
-0.55271095 -0.99999994 0.53570926
-0.53883624 -1 0.51791173
-0.5474112 -1 0.54353786
-0.56243479 -1 0.48102272
-0.56183648 -1 0.4752408
-0.55640775 -1 0.48354656
-0.54943919 -1 0.59887862
-0.53936255 -1 0.59573716
-0.54084378 -1 0.60561442
-0.5364216 -1 0.56834936
-0.54687172 -1 0.57172942
-0.55799752 -1 0.55801344
-0.5400002 -1 0.65479767
-0.53641587 -1 0.68317342
-0.56208426 -1 0.69002885
-0.56067634 -1 0.67954624
-0.54044658 -1 0.64764714
-0.54269248 -1 0.75262207
-0.55050063 -1 0.77335811
-0.53711021 -1 0.72298932
-0.55681598 -1 0.70886707
-0.55430913 -1 0.71549416
-0.53315544 -1 0.85012776
-0.53439134 -1 0.83931607
-0.53379762 -1 0.80289406
-0.56020463 -1 0.79304695
-0.55984247 -1 0.77890158
-0.54042518 -1 0.79060686
-0.53559822 -1 0.88592219
-0.53922635 -1 0.88586807
-0.55954152 -1 0.84730661
-0.54844236 -1 0.86401886
-0.54723907 -1 0.97475451
-0.53849673 -1 0.97059608
-0.55978584 -1 0.97114819
-0.54210132 -1 1.0348624
-0.5593279 -1 1.0023278
-0.5468688 -1 1.1328225
-0.5425638 -1 1.0955962
-0.54615408 -1 1.188287
-0.56027478 -1 1.1413373
-0.53668606 -1 1.2585047
-0.55277896 -1 1.2349981
-0.56883776 -1 -0.85560942
-0.56425172 -1 -0.81613445
-0.58864385 -1 -0.85028279
-0.57860065 -1 -0.73574573
-0.58510727 -1 -0.77142227
-0.57148159 -1 -0.644678
-0.5625959 -1 -0.67268038
-0.5684939 -1 -0.69791657
-0.57597041 -1 -0.69333798
-0.57916903 -1 -0.57547957
-0.56873065 -1 -0.57621109
-0.5854423 -1 -0.62488925
-0.57992572 -1 -0.60185122
-0.57997453 -1 -0.5059309
-0.5670628 -1 -0.5373711
-0.57798827 -1 -0.54670131
-0.58764374 -1 -0.53488564
-0.58727306 -1 -0.42495951
-0.58606946 -1 -0.42098129
-0.58802366 -1 -0.43179628
-0.59321868 -1 -0.48168314
-0.57956582 -1 -0.45131746
-0.57716727 -1 -0.36896572
-0.56586492 -1 -0.39832017
-0.56961697 -1 -0.34223363
-0.58871019 -1 -0.41053966
-0.56742603 -1 -0.40214464
-0.57530934 -1 -0.27468047
-0.56809247 -1 -0.3087309
-0.58061546 -1 -0.2794292
-0.59309763 -1 -0.27761671
-0.57938409 -1 -0.30904111
-0.56475097 -1 -0.22228371
-0.58111775 -1 -0.19806662
-0.56284708 -1 -0.25326481
-0.58489656 -1 -0.26409584
-0.57353139 -1 -0.24497899
-0.56990707 -1 -0.24891974
-0.57238507 -1 -0.14624372
-0.58251238 -0.99999994 -0.14848334
-0.58383954 -1 -0.14300202
-0.58727831 -1 -0.14299896
-0.57222384 -1 -0.19165188
-0.56542236 -1 -0.058718655
-0.57870054 -1 -0.060400508
-0.56491643 -1 -0.064632811
-0.58056307 -1 -0.10295992
-0.59088159 -1 -0.074948385
-0.56638801 -1 0.013441977
-0.57776719 -1 -0.010417254
-0.58287686 -1 -0.048839532
-0.59276688 -1 0.0072022825
-0.57108229 -1 0.082866214
-0.57616669 -1 0.029278459
-0.57314557 -1 0.037521198
-0.56522834 -1 0.12470775
-0.5680294 -1 0.13806404
-0.5853833 -1 0.11346477
-0.57241386 -1 0.12325196
-0.56278771 -1 0.17927094
-0.57042134 -1 0.1830467
-0.56533134 -1 0.30841759
-0.57270074 -1 0.29816264
-0.59268808 -1 0.25289375
-0.57764494 -1 0.38417953
-0.56663203 -1 0.39640951
-0.58201981 -1 0.33467704
-0.58519256 -1 0.33761334
-0.59070587 -1 0.36479056
-0.56275642 -1 0.47210604
-0.56287551 -1 0.45225006
-0.58730972 -1 0.41657835
-0.59098804 -1 0.39017901
-0.57691443 -1 0.50333625
-0.56942809 -1 0.49939862
-0.56355172 -1 0.54097718
-0.5746007 -1 0.49333426
-0.58027798 -1 0.47527695
-0.58035189 -0.99999994 0.60487485
-0.56942868 -1 0.60293174
-0.57157147 -1 0.54253662
-0.58568192 -1 0.56193423
-0.57754171 -1 0.67539692
-0.56318396 -1 0.64388692
-0.59129417 -1 0.63500953
-0.59068477 -1 0.61067641
-0.59260994 -1 0.64768046
-0.56580961 -1 0.72737205
-0.57268161 -1 0.74466145
-0.59140968 -1 0.67966944
-0.56850559 -1 0.70046526
-0.5673486 -1 0.70048356
-0.57333755 -1 0.81038296
-0.56999725 -1 0.79025513
-0.57388043 -1 0.77282763
-0.58364707 -0.99999994 0.78464741
-0.58628941 -1 0.75607282
-0.58080411 -1 0.8919372
-0.56892288 -1 0.90904516
-0.56890982 -1 0.85003483
-0.58560979 -1 0.86088467
-0.56290257 -1 0.96478891
-0.56982648 -1 0.97550726
-0.582008 -1 0.9352228
-0.57186902 -1 1.0406228
-0.59362686 -1 0.97177368
-0.57816398 -1 1.0961258
-0.58501697 -1 1.0943576
-0.57632828 -1 1.172362
-0.58427012 -1 1.1292592
-0.56580722 -1 1.2743396
-0.58018017 -1 1.2245064
-0.5952723 -1 -0.87321287
-0.60907775 -1 -0.90836877
-0.60661995 -1 -0.80791605
-0.61448526 -1 -0.83005464
-0.59459251 -1 -0.72421825
-0.61341357 -1 -0.71935958
-0.62151307 -1 -0.77064908
-0.61697263 -1 -0.74652499
-0.61111355 -1 -0.66277087
-0.59777457 -1 -0.67648607
-0.61337268 -1 -0.70019335
-0.60339803 -1 -0.59143168
-0.62135077 -1 -0.57074952
-0.59626424 -1 -0.63555515
-0.62235737 -1 -0.60377234
-0.59971368 -1 -0.50528151
-0.60007882 -1 -0.50726509
-0.60063082 -1 -0.56203502
-0.6199128 -1 -0.51253557
-0.59556663 -1 -0.42051324
-0.60078752 -1 -0.46373695
-0.60084176 -1 -0.48679119
-0.61066163 -1 -0.48697475
-0.61834717 -1 -0.4575212
-0.60744441 -1 -0.35573095
-0.60107958 -1 -0.39684644
-0.60795927 -1 -0.35108733
-0.61544383 -1 -0.38255849
-0.60648692 -1 -0.3926658
-0.62069952 -1 -0.41204932
-0.61118352 -1 -0.27775198
-0.61329007 -1 -0.28781927
-0.60803449 -1 -0.28233373
-0.6165272 -1 -0.34700081
-0.61039126 -1 -0.31661475
-0.62235606 -1 -0.33919352
-0.60037738 -1 -0.2491045
-0.60100663 -1 -0.20776959
-0.60603249 -1 -0.23446198
-0.61343306 -1 -0.24471676
-0.62415624 -1 -0.25945365
-0.60355532 -1 -0.26389623
-0.60042697 -1 -0.16040327
-0.60980815 -1 -0.13716741
-0.62436318 -1 -0.201269
-0.59871298 -1 -0.18910977
-0.59980571 -1 -0.079302825
-0.60752863 -1 -0.058386344
-0.60398936 -1 -0.11824541
-0.60294855 -1 -0.11809839
-0.60287094 -1 -0.025087347
-0.61324745 -1 -0.01479601
-0.61461985 -1 -0.029324953
-0.60178602 -1 0.055269346
-0.60667813 -1 0.053413704
-0.61140537 -1 0.037111137
-0.61139226 -1 0.13965873
-0.61968786 -1 0.095690593
-0.5966326 -0.99999994 0.21489567
-0.60684758 -1 0.19893101
-0.61728859 -1 0.16792828
-0.60897732 -1 0.16871166
-0.60727519 -1 0.29986113
-0.61406159 -1 0.28968036
-0.62490427 -1 0.28427711
-0.62307924 -1 0.23212762
-0.59409064 -1 0.32550028
-0.62136334 -1 0.33098903
-0.61707997 -1 0.32626414
-0.5965426 -1 0.43425775
-0.59406412 -1 0.40819973
-0.60420519 -1 0.4287616
-0.62246442 -1 0.40597868
-0.62072265 -1 0.37297499
-0.59736603 -1 0.50986171
-0.59886813 -1 0.52190405
-0.59848064 -1 0.45746177
-0.62224352 -1 0.45731997
-0.59513336 -1 0.5751971
-0.60278314 -1 0.5650807
-0.61933458 -1 0.53072208
-0.59650671 -1 0.53339607
-0.6034947 -1 0.65771353
-0.61936456 -1 0.65181452
-0.60727799 -1 0.63818872
-0.62229115 -1 0.60590851
-0.62092006 -1 0.59830153
-0.60792869 -1 0.62641108
-0.6043371 -1 0.70148057
-0.59528708 -1 0.7212745
-0.59640658 -1 0.69954306
-0.61003727 -1 0.67819726
-0.6232897 -1 0.68414176
-0.62313426 -1 0.70305735
-0.61114591 -1 0.79363561
-0.59661394 -1 0.79131711
-0.60205722 -1 0.75463682
-0.61596274 -1 0.78258944
-0.61769021 -1 0.87362701
-0.60902768 -1 0.86273706
-0.60818607 -1 0.82870227
-0.62028015 -1 0.82240403
-0.60025406 -1 0.93011999
-0.61609912 -1 0.88175714
-0.59421682 -1 0.99410617
-0.60836089 -1 0.98286593
-0.59495199 -1 1.0694591
-0.62401879 -1 1.0779557
-0.60766196 -1 1.1704512
-0.61408794 -1 1.130361
-0.61051905 -1 1.230583
-0.62168431 -1 1.1681215
-0.64212412 -1 -0.88118684
-0.64731652 -1 -0.89988208
-0.63206452 -1 -0.79742539
-0.65275878 -1 -0.84505582
-0.65525091 -1 -0.71581733
-0.63514137 -1 -0.77127361
-0.63117051 -1 -0.66026312
-0.62867802 -1 -0.68952179
-0.63986504 -1 -0.70702398
-0.64907831 -1 -0.68311936
-0.63146776 -1 -0.58363044
-0.62512708 -1 -0.59307814
-0.65553534 -1 -0.63045096
-0.65500814 -1 -0.64303243
-0.63092071 -1 -0.54053837
-0.62765115 -1 -0.52605712
-0.65350646 -1 -0.50619668
-0.6525681 -1 -0.55781573
-0.6533885 -1 -0.54654497
-0.62593299 -1 -0.4415032
-0.63089275 -1 -0.46192348
-0.65519899 -1 -0.49733216
-0.65070552 -1 -0.44843164
-0.62711215 -1 -0.37334052
-0.62657416 -1 -0.39542475
-0.63758349 -1 -0.36278564
-0.65498209 -1 -0.39620784
-0.63094485 -1 -0.42053229
-0.63776451 -1 -0.41323394
-0.62532347 -1 -0.30453485
-0.63175321 -1 -0.31108806
-0.62867987 -1 -0.29235467
-0.65046251 -1 -0.33685976
-0.64763331 -1 -0.32009849
-0.6381886 -1 -0.22779001
-0.64872801 -1 -0.22524528
-0.64187729 -1 -0.23455843
-0.63043815 -1 -0.27894649
-0.6547662 -1 -0.25306612
-0.63250417 -1 -0.27761948
-0.63941193 -1 -0.16319251
-0.63254422 -0.99999994 -0.15971482
-0.64689016 -1 -0.14980054
-0.65270567 -1 -0.19973817
-0.64957517 -1 -0.20457569
-0.62577707 -1 -0.083732761
-0.62565482 -1 -0.10877421
-0.64878947 -1 -0.12711206
-0.63906783 -1 -0.11222562
-0.64019287 -1 -0.020797903
-0.63434231 -1 -0.055728678
-0.65295899 -1 -0.036146402
-0.64060915 -1 0.050633527
-0.64866781 -1 0.020786153
-0.65534121 -1 0.030639149
-0.62552875 -1 0.085887775
-0.64383489 -1 0.0914241
-0.63696313 -1 0.19293073
-0.643718 -1 0.15361331
-0.64603621 -1 0.28437692
-0.63633657 -1 0.25667736
-0.62934506 -1 0.23199922
-0.6448651 -1 0.34965333
-0.64761174 -1 0.30251741
-0.64953506 -1 0.33112714
-0.64400655 -1 0.42413101
-0.63241714 -1 0.41470698
-0.63068056 -1 0.37101692
-0.64866143 -1 0.39210597
-0.63525456 -1 0.4735519
-0.62551379 -1 0.50164628
-0.64626229 -1 0.45629859
-0.65351176 -1 0.47682709
-0.63527894 -1 0.56395209
-0.63418555 -1 0.56731105
-0.63860697 -1 0.53640831
-0.6270169 -1 0.51393306
-0.65096581 -1 0.5062331
-0.62783509 -1 0.60208923
-0.6309315 -1 0.61490172
-0.63112783 -1 0.65304494
-0.65619087 -1 0.57317013
-0.64676517 -1 0.58510029
-0.64287984 -1 0.71456873
-0.6286552 -1 0.72305745
-0.6523174 -1 0.69889265
-0.64612007 -1 0.69040501
-0.64420497 -1 0.66333115
-0.63459742 -1 0.79411143
-0.63930511 -1 0.75645697
-0.62958109 -1 0.72915441
-0.6461066 -1 0.72956032
-0.62703604 -1 0.844419
-0.62915957 -1 0.84882718
-0.640944 -1 0.79736567
-0.63109821 -1 0.81006318
-0.63709807 -1 0.91842318
-0.62569517 -1 0.87804854
-0.65481818 -1 0.89197981
-0.65347761 -1 0.86776507
-0.63614774 -1 0.99549949
-0.64858806 -1 0.95997649
-0.6535874 -1 1.0626799
-0.65365046 -1 1.0070584
-0.64051044 -1 1.1265854
-0.6524725 -1 1.0716591
-0.64078283 -0.99999994 1.2033904
-0.65058452 -1 1.1782498
-0.67166209 -1 -0.86389506
-0.66433227 -1 -0.91527408
-0.65877026 -1 -0.84240419
-0.68460953 -1 -0.81077456
-0.65888441 -1 -0.76973146
-0.68597859 -1 -0.78196836
-0.65651363 -1 -0.6453492
-0.67889309 -1 -0.66347754
-0.677387 -1 -0.71316725
-0.68566352 -1 -0.71768272
-0.663715 -1 -0.59018213
-0.6607092 -1 -0.58386934
-0.66384226 -1 -0.63591015
-0.67313045 -1 -0.63199323
-0.67389935 -1 -0.53193021
-0.66103846 -1 -0.52004606
-0.67934066 -1 -0.53933287
-0.67446315 -1 -0.55887353
-0.6838516 -1 -0.515396
-0.66048241 -1 -0.45715716
-0.68212616 -1 -0.44142896
-0.68065143 -1 -0.50494587
-0.67803216 -1 -0.49239737
-0.67745399 -1 -0.38529849
-0.67848331 -1 -0.37753201
-0.65683866 -1 -0.40113103
-0.67983884 -1 -0.41650611
-0.65897566 -1 -0.43012339
-0.6726892 -1 -0.30931196
-0.66408861 -1 -0.31690913
-0.68397987 -1 -0.32063094
-0.68528736 -1 -0.30785805
-0.66930884 -1 -0.22937536
-0.67810559 -1 -0.24200508
-0.68326515 -1 -0.2869156
-0.68380916 -1 -0.24917313
-0.68518293 -1 -0.24534991
-0.67256272 -1 -0.18266317
-0.66425812 -1 -0.1520879
-0.68012798 -1 -0.21940398
-0.68024027 -1 -0.21518454
-0.65761608 -1 -0.083220758
-0.67418951 -1 -0.10743098
-0.67976081 -1 -0.14872152
-0.67154157 -1 -0.14078927
-0.66021031 -1 -0.027703766
-0.68500316 -1 -0.079441063
-0.68205422 -1 -0.057816427
-0.65991408 -1 0.0053671999
-0.6563704 -1 0.032494657
-0.67849916 -1 0.0072506359
-0.65662986 -1 0.12950931
-0.66931653 -1 0.09485282
-0.67969096 -1 0.082499787
-0.66351509 -1 0.16485246
-0.67930031 -1 0.13466007
-0.68300104 -1 0.26016402
-0.6677267 -1 0.23179153
-0.66041726 -1 0.34824237
-0.67456651 -1 0.33606195
-0.68369913 -1 0.30037698
-0.65728533 -1 0.35697436
-0.66519219 -1 0.37454548
-0.6851896 -1 0.34296432
-0.67567354 -1 0.38518378
-0.66652346 -1 0.45522296
-0.66570884 -1 0.47721159
-0.67852497 -1 0.4554137
-0.67061484 -1 0.42615116
-0.67201221 -1 0.55147266
-0.65778494 -1 0.52915585
-0.67682117 -1 0.50599903
-0.66594273 -1 0.51149762
-0.6688565 -1 0.63062322
-0.67237431 -1 0.6245364
-0.66380697 -1 0.56520474
-0.67630225 -1 0.5927853
-0.65672559 -1 0.66739321
-0.67203176 -0.99999994 0.67916298
-0.68669116 -1 0.6243872
-0.68693054 -1 0.66183531
-0.66953802 -1 0.64997876
-0.65942919 -1 0.73607111
-0.67259443 -1 0.74929291
-0.66926801 -1 0.72082973
-0.68319625 -1 0.69611812
-0.68430316 -1 0.83086234
-0.66849113 -1 0.81838483
-0.66887206 -1 0.77753085
-0.66297162 -1 0.87592238
-0.67137462 -1 0.85642052
-0.65821731 -1 0.99032807
-0.67838085 -1 0.97374243
-0.68398142 -1 0.92607969
-0.65717208 -1 1.0430642
-0.67957479 -1 0.99308842
-0.67913318 -0.99999994 1.1150894
-0.66997737 -1 1.0677795
-0.666502 -1 1.1823783
-0.68043947 -1 1.1279707
-0.69789428 -1 -0.86439717
-0.70535171 -1 -0.92147362
-0.69265187 -1 -0.82851523
-0.70392871 -1 -0.85474551
-0.69785148 -1 -0.72796309
-0.71553254 -1 -0.77566504
-0.68889028 -1 -0.67630053
-0.69888139 -1 -0.69936472
-0.69092113 -1 -0.63081527
-0.6968317 -1 -0.58365554
-0.69674116 -1 -0.6374687
-0.69181442 -1 -0.52914679
-0.69100243 -1 -0.52363956
-0.70611775 -1 -0.56485367
-0.71617377 -1 -0.54588389
-0.70979589 -1 -0.54144943
-0.70576209 -1 -0.44997871
-0.69573981 -1 -0.48530793
-0.71288276 -1 -0.48806745
-0.71851999 -1 -0.44429532
-0.69944185 -1 -0.40380913
-0.70088559 -1 -0.37649322
-0.70470154 -1 -0.39709371
-0.70146346 -1 -0.4229354
-0.71213311 -1 -0.43387118
-0.70903802 -1 -0.30550474
-0.70098978 -1 -0.31801507
-0.70367372 -1 -0.36072117
-0.710518 -1 -0.33095974
-0.69252336 -1 -0.22952376
-0.69473696 -1 -0.26387411
-0.70504212 -1 -0.2694664
-0.71177161 -1 -0.27607948
-0.70406169 -1 -0.16826986
-0.69240946 -1 -0.18553692
-0.7059626 -1 -0.21001989
-0.70417655 -1 -0.22235432
-0.70177656 -1 -0.10834684
-0.71050006 -1 -0.10246155
-0.71738261 -1 -0.16256741
-0.70825285 -1 -0.15161869
-0.69301444 -1 -0.04617231
-0.71714854 -1 -0.042556453
-0.69250679 -1 0.045948092
-0.70013106 -1 -0.0080978777
-0.69345725 -1 0.080656245
-0.71805853 -1 0.10499219
-0.69178724 -1 0.18676999
-0.71067178 -1 0.16300979
-0.69450814 -1 0.21697436
-0.71404022 -1 0.2233835
-0.69496822 -1 0.32259476
-0.70022339 -1 0.28560835
-0.70471603 -1 0.37600493
-0.69993412 -1 0.33890069
-0.69206035 -1 0.43932366
-0.70865333 -1 0.40249759
-0.71318328 -1 0.40742505
-0.70955384 -1 0.52743357
-0.70333862 -1 0.5378021
-0.70520139 -1 0.47301975
-0.70969296 -1 0.50511098
-0.68983525 -1 0.55894542
-0.70035553 -1 0.61155707
-0.7106995 -1 0.53998482
-0.71633691 -1 0.53482282
-0.71455687 -1 0.67352325
-0.69333982 -1 0.66216719
-0.6986748 -1 0.61968309
-0.70848227 -1 0.61141026
-0.71693838 -1 0.61590046
-0.69528699 -1 0.73243695
-0.71022427 -1 0.69736421
-0.7008065 -1 0.71216404
-0.69622904 -1 0.78061146
-0.70486081 -1 0.80503643
-0.71730608 -1 0.74499869
-0.71650839 -1 0.76440883
-0.70349681 -1 0.86857414
-0.71846724 -1 0.84187239
-0.68850523 -1 0.90731531
-0.71684241 -1 0.94475627
-0.70520771 -1 1.0273083
-0.69191599 -1 0.97440517
-0.70279706 -1 1.0764924
-0.71433675 -1 1.0780791
-0.69266772 -1 1.1329821
-0.71728432 -1 1.1542788
-0.72133565 -1 -0.9119361
-0.74506563 -1 -0.90341282
-0.72972447 -1 -0.79724908
-0.74593502 -1 -0.85003215
-0.73120642 -1 -0.76095384
-0.72511572 -1 -0.78693926
-0.73707235 -1 -0.66759181
-0.74009788 -0.99999994 -0.72294927
-0.73624706 -1 -0.71401441
-0.72841209 -1 -0.58730382
-0.72500306 -1 -0.59640789
-0.74507475 -1 -0.65077019
-0.72891247 -1 -0.6475122
-0.71918154 -1 -0.56298059
-0.72034985 -1 -0.56761867
-0.72470975 -1 -0.54441023
-0.74290228 -1 -0.55122489
-0.74026626 -1 -0.56854582
-0.7356602 -1 -0.46450368
-0.73406231 -1 -0.47088364
-0.74801034 -1 -0.50485629
-0.74269223 -1 -0.48364347
-0.73997426 -1 -0.38143891
-0.72406316 -1 -0.37578201
-0.736772 -1 -0.38836074
-0.74331379 -1 -0.42532623
-0.73218107 -1 -0.41893795
-0.7310698 -1 -0.42511728
-0.73065877 -1 -0.31790414
-0.72188866 -1 -0.33357534
-0.7272855 -1 -0.31155676
-0.74880588 -1 -0.37865233
-0.74463558 -1 -0.3729105
-0.72983593 -1 -0.24116647
-0.73589122 -1 -0.24135724
-0.74861109 -1 -0.2985355
-0.7290861 -1 -0.28490743
-0.73135722 -1 -0.18756473
-0.72533923 -1 -0.18026067
-0.72949404 -1 -0.21764268
-0.73424548 -1 -0.23401067
-0.73315525 -1 -0.11874112
-0.72161853 -1 -0.10628633
-0.72557187 -1 -0.1566851
-0.74279284 -1 -0.12311285
-0.72076464 -1 -0.032553241
-0.74353492 -1 -0.08105839
-0.74481821 -1 -0.094328247
-0.71936494 -1 0.0025868472
-0.74352431 -1 -0.019867389
-0.7486062 -1 0.017194916
-0.72221816 -1 0.062174506
-0.74935603 -1 0.063290946
-0.73590779 -1 0.17663231
-0.74464214 -1 0.12803926
-0.73033452 -1 0.24323021
-0.73955202 -1 0.20217434
-0.72397673 -0.99999994 0.3144533
-0.74400061 -1 0.26288277
